ply
format ascii 1.0
comment Created by Open3D
element origin 1
property double x
property double y
property double z
element voxel_size 1
property double val
element vertex 2423
property double x
property double y
property double z
property uchar red
property uchar green
property uchar blue
end_header
-0.523352 -0.367694 -0.129127
0.00356
163 37 44 29 29 27
182 87 1 71 77 79
163 37 46 27 24 18
25 119 8 169 187 190
113 195 6 82 88 83
84 97 53 88 85 81
210 130 48 57 56 48
164 69 1 240 216 216
165 33 44 31 31 26
165 34 44 54 55 49
166 34 44 42 43 37
166 35 44 23 23 20
167 35 44 31 31 29
151 139 48 67 67 63
199 130 2 73 76 75
168 35 44 68 69 66
164 36 44 23 24 22
166 36 44 47 47 43
47 153 2 109 116 116
144 155 52 87 84 81
150 126 52 78 77 79
165 36 45 30 31 28
183 131 48 48 45 40
78 186 2 68 75 76
107 130 52 84 82 83
167 36 44 18 19 18
73 107 1 43 48 45
128 167 48 72 67 55
253 64 47 82 82 76
166 35 45 31 30 26
231 54 48 85 85 76
147 117 52 92 89 90
19 105 49 155 186 197
88 181 48 59 61 58
167 34 45 102 107 104
249 51 2 70 77 81
214 121 53 60 60 58
92 108 1 240 240 230
62 123 52 110 94 84
168 35 47 18 18 16
193 113 48 41 40 35
165 36 46 66 59 49
63 160 48 104 105 98
124 79 52 124 113 106
53 91 17 56 57 56
105 78 1 24 23 19
86 83 45 6 7 6
164 37 46 24 23 18
62 95 53 59 56 54
166 35 46 26 23 18
48 105 53 64 58 55
134 88 45 33 31 27
166 35 47 21 23 22
168 36 47 48 48 42
65 177 47 34 35 22
41 139 52 80 76 75
171 31 39 52 54 52
170 32 39 26 28 27
183 133 53 64 64 65
39 101 24 80 67 51
171 32 39 26 28 27
54 79 9 77 93 89
169 32 40 92 94 91
88 89 48 26 25 18
200 21 48 32 32 28
99 175 48 82 82 74
200 94 2 70 75 76
152 95 2 150 151 147
221 48 47 71 71 53
148 72 53 139 124 113
171 32 40 58 66 64
215 42 48 95 92 76
172 32 39 14 13 12
103 116 48 81 79 60
243 57 53 72 71 70
64 131 48 43 44 35
171 31 41 29 28 26
215 27 52 79 73 70
129 109 2 91 93 94
169 32 41 184 194 189
29 106 7 177 198 197
171 32 41 28 32 31
57 155 48 55 55 48
171 31 42 14 14 13
198 132 2 74 76 75
66 85 13 200 179 156
224 77 53 65 66 68
241 37 53 76 73 72
165 36 53 72 68 66
230 37 48 58 61 52
95 104 47 47 46 36
78 72 10 105 111 101
169 32 42 88 93 91
171 31 43 14 15 13
68 72 44 164 168 166
171 33 39 70 71 71
113 73 52 56 56 54
64 135 48 70 71 60
171 34 39 36 36 35
200 35 53 96 91 88
170 34 40 13 15 13
160 129 48 58 57 35
237 47 1 78 89 92
193 31 55 137 127 114
55 138 2 205 207 184
172 34 38 37 38 33
106 161 53 53 53 52
64 90 6 226 208 164
172 35 39 18 20 18
21 104 49 171 212 239
222 111 54 72 72 73
173 34 53 89 80 71
106 121 53 64 61 57
87 103 1 146 139 105
78 164 53 53 53 54
173 35 39 20 20 17
32 105 52 46 46 47
104 120 1 230 230 209
179 159 2 154 124 129
153 105 53 89 85 82
115 73 51 118 115 110
172 33 40 19 20 20
195 34 53 110 104 100
173 37 39 44 45 41
80 200 52 70 69 70
174 121 2 87 91 93
171 35 41 43 43 34
221 3 46 14 14 13
212 103 43 51 51 49
170 34 41 94 95 89
208 80 47 24 25 22
116 82 1 123 121 102
228 117 53 65 63 65
60 71 44 245 250 251
170 35 41 16 17 16
120 176 44 38 37 37
104 94 1 195 192 166
120 181 46 27 27 26
109 137 46 33 32 27
75 148 48 86 87 79
171 34 42 37 36 31
172 34 41 9 9 9
133 113 47 56 56 48
172 33 42 18 20 18
173 36 41 23 26 25
102 74 6 130 130 127
173 36 42 16 18 16
130 58 48 55 55 42
105 158 53 57 57 57
175 37 39 28 32 30
38 98 45 195 204 201
89 156 52 85 82 80
170 30 44 21 20 15
65 177 53 60 61 61
51 59 42 182 195 195
123 146 52 92 92 93
149 117 44 22 22 21
168 36 53 52 47 40
262 109 2 18 14 12
226 32 48 28 25 20
107 68 53 116 105 96
171 30 44 25 24 20
60 172 22 23 25 23
68 84 17 184 169 151
172 29 44 26 19 14
137 161 53 56 55 55
33 128 48 45 46 37
55 103 1 11 11 6
173 30 44 18 17 15
57 162 28 105 128 140
171 32 43 36 36 32
100 82 53 100 89 80
170 32 44 83 83 81
167 37 48 60 61 51
165 38 53 37 37 34
118 170 39 26 26 22
172 31 44 16 18 16
173 133 47 31 28 25
171 32 45 22 23 23
173 32 45 13 14 13
129 156 48 76 76 73
67 117 47 68 68 58
148 53 47 63 63 54
160 142 47 27 26 27
231 40 48 81 82 75
170 32 47 125 124 118
227 29 53 140 127 119
88 79 7 72 83 82
148 162 2 101 103 103
170 32 46 16 16 14
173 31 46 4 4 4
50 110 1 26 27 26
39 112 4 67 68 63
172 33 45 46 45 36
114 83 52 98 89 83
168 24 48 47 54 54
156 63 1 223 224 205
77 82 51 101 100 99
155 52 52 43 41 35
64 107 53 61 58 55
172 32 46 28 28 26
173 31 47 16 17 16
95 118 52 86 86 84
61 148 52 89 83 78
188 52 52 103 98 97
98 196 47 60 59 57
240 120 9 130 158 172
175 29 44 16 17 15
264 93 2 93 95 87
88 119 44 57 55 42
109 108 1 210 199 174
174 30 44 22 23 18
114 127 1 125 134 133
79 63 44 211 228 231
109 130 47 84 83 75
175 30 44 14 15 13
243 103 53 70 69 67
128 60 1 11 11 9
90 113 52 108 105 103
201 71 53 65 64 66
200 65 1 125 110 117
178 28 44 17 18 17
124 195 44 12 12 9
103 194 2 88 94 95
229 53 53 65 65 65
136 168 48 68 68 64
152 57 48 66 69 56
224 17 1 184 181 152
177 29 45 17 19 18
178 29 45 9 9 10
172 35 43 16 17 15
226 14 48 34 34 25
88 122 40 90 86 79
204 35 53 61 62 65
177 30 44 7 7 6
192 138 46 29 31 31
210 55 53 90 85 83
63 59 48 225 248 255
174 31 45 32 34 33
171 49 53 148 132 121
175 31 44 7 7 6
140 156 49 11 14 9
176 30 46 49 50 48
83 182 2 99 105 108
71 94 23 12 12 10
175 30 46 23 22 22
177 29 47 25 22 20
218 133 53 66 63 61
60 76 10 84 91 92
200 28 53 62 63 65
178 29 47 45 48 45
178 30 47 25 27 23
235 96 46 19 18 16
174 31 46 5 4 5
39 100 26 176 191 199
147 67 53 133 119 108
175 31 47 37 39 35
248 49 1 49 58 60
11 94 47 187 221 239
138 114 2 90 97 99
117 188 49 40 38 32
174 32 47 19 20 16
239 87 53 64 64 65
163 86 48 61 60 51
42 97 0 253 254 254
257 94 2 81 87 81
142 112 53 93 88 84
121 61 8 118 125 129
222 69 44 46 43 36
156 52 47 69 67 53
177 31 46 34 39 37
78 127 48 103 104 83
164 117 53 66 64 61
177 31 45 40 45 41
235 49 48 83 83 78
178 31 46 28 31 28
176 33 46 16 16 15
177 33 46 87 87 79
103 76 53 120 107 96
198 21 53 83 79 76
94 196 53 53 53 54
66 81 38 193 210 214
178 32 46 5 15 13
129 192 40 19 16 13
189 26 52 13 14 15
177 75 48 60 62 50
176 60 52 102 97 96
176 31 47 24 26 23
186 148 2 102 101 101
120 143 53 69 66 64
184 45 48 34 35 30
176 32 46 16 15 12
61 176 2 112 119 121
169 33 44 18 18 16
246 41 53 71 69 69
190 23 53 39 37 32
47 148 48 86 86 76
225 5 7 47 20 15
170 34 44 6 7 6
171 34 43 32 32 28
136 93 48 72 73 61
251 112 53 61 62 63
46 63 47 130 156 159
216 53 53 63 63 66
99 97 53 89 81 75
151 123 48 90 90 82
13 70 46 251 254 254
170 35 43 32 33 30
49 154 48 75 75 65
135 173 53 79 76 75
39 106 8 40 48 46
155 116 2 82 89 92
170 33 45 111 107 95
190 34 48 28 28 19
61 126 1 197 198 175
227 77 2 95 101 101
114 143 53 56 55 53
170 35 44 7 7 7
117 189 52 79 77 75
100 128 52 103 99 97
172 34 43 11 11 11
220 10 53 68 67 68
172 34 44 10 10 9
73 100 48 27 27 19
172 33 43 16 16 15
183 50 48 35 37 32
173 35 44 17 19 18
87 65 8 145 165 146
226 15 53 66 66 68
171 36 44 86 83 72
98 74 8 32 27 21
172 37 44 75 74 59
174 156 53 65 63 63
250 50 2 75 87 91
224 38 1 208 205 181
172 35 45 64 64 59
169 34 46 65 65 54
69 97 53 69 64 61
171 33 46 48 44 33
39 99 12 215 227 235
217 32 48 45 44 33
171 35 45 28 28 20
43 105 7 39 50 48
45 150 48 158 157 144
170 35 46 28 26 18
155 68 53 108 100 93
170 33 46 87 77 59
219 17 1 117 113 90
84 85 7 104 106 101
170 33 47 26 27 23
95 186 53 74 69 67
119 137 48 92 92 82
71 119 53 131 116 106
52 103 8 20 22 21
67 178 47 76 75 66
244 59 47 17 18 13
127 104 48 67 66 55
195 20 54 147 134 124
153 49 53 211 196 183
170 34 46 25 25 20
111 78 1 46 44 36
233 64 47 20 19 16
244 57 45 23 22 18
132 98 2 164 165 160
162 151 48 56 55 50
173 33 45 117 118 118
62 56 47 226 248 255
208 143 49 38 37 35
173 34 45 41 42 41
164 104 44 60 56 47
158 49 48 59 60 50
172 34 45 40 37 30
30 117 0 13 12 7
60 99 7 31 27 17
131 114 53 81 77 75
172 35 46 58 62 52
174 52 48 99 94 77
136 113 53 75 73 73
168 23 49 121 126 130
140 46 52 146 134 123
136 141 52 91 87 85
172 33 47 26 27 24
172 34 47 17 17 14
228 116 47 38 39 34
168 151 47 47 44 39
40 109 8 71 86 84
101 197 53 60 57 55
74 102 48 28 27 18
63 84 24 170 182 184
171 36 45 91 76 56
174 36 44 24 25 22
231 108 48 105 103 97
260 105 54 66 68 74
174 35 44 128 132 128
41 95 17 44 51 43
152 143 48 45 45 43
175 34 45 34 33 29
82 172 48 45 45 36
160 19 47 92 93 87
85 118 48 84 85 78
161 18 48 225 242 241
70 92 27 79 81 77
88 122 42 73 72 64
170 48 52 78 74 69
161 20 48 177 208 212
210 82 13 21 40 40
95 78 44 20 21 18
102 196 48 51 51 46
48 110 51 75 71 69
160 18 49 164 197 201
77 95 53 90 83 76
161 20 49 204 233 237
142 170 53 69 67 65
84 77 52 94 85 79
163 19 49 136 164 176
161 21 48 167 197 201
69 147 52 96 94 95
246 58 2 72 79 78
126 88 48 64 65 56
161 60 48 75 76 68
162 22 47 138 166 171
166 56 53 91 87 87
83 118 1 234 231 223
214 109 48 58 53 41
164 22 48 201 226 227
162 21 49 194 224 232
90 92 48 36 34 22
230 37 53 68 68 70
162 22 49 183 212 218
197 100 2 79 87 88
39 101 36 140 134 125
165 19 48 147 170 183
37 127 1 210 213 192
165 20 48 110 129 133
164 20 48 184 214 218
60 117 52 97 92 88
244 112 2 161 163 155
134 122 46 34 33 29
165 19 49 126 147 157
166 143 48 56 56 49
166 19 49 158 181 193
165 20 49 41 50 53
64 129 45 90 100 100
235 68 47 7 9 9
168 20 49 199 230 245
164 21 48 188 216 220
154 175 53 59 58 57
122 62 44 27 27 23
165 21 48 169 197 199
140 52 52 25 27 30
101 147 48 41 40 35
208 85 6 14 20 16
133 88 53 113 96 88
189 141 46 9 13 15
150 79 44 38 36 31
192 38 48 70 60 51
142 169 2 96 99 100
65 159 53 46 47 46
165 22 48 148 173 173
200 129 2 67 70 68
230 28 48 64 64 56
169 21 49 144 167 176
115 133 46 42 40 35
167 23 49 20 15 14
30 112 44 35 22 15
163 24 48 146 170 175
115 85 53 107 94 84
70 161 53 58 60 61
237 36 1 240 240 229
164 25 48 196 193 191
163 24 49 77 88 86
176 159 48 57 57 52
157 52 47 58 57 44
162 24 49 191 217 219
185 143 47 58 58 51
189 66 49 44 46 33
227 87 47 83 84 71
92 75 1 166 168 161
164 25 49 150 160 170
161 26 49 46 52 56
218 10 52 36 38 37
97 146 2 115 125 127
160 27 49 91 92 94
60 80 7 84 115 126
16 101 49 200 231 244
234 39 1 236 236 224
161 27 49 161 159 161
157 96 47 61 61 53
246 79 53 66 67 69
162 26 49 169 168 170
153 47 48 51 53 43
163 26 49 175 186 195
171 108 48 48 49 42
209 90 6 71 77 77
43 91 49 198 233 254
236 115 2 77 83 83
189 90 53 63 63 64
47 150 2 104 109 107
232 114 53 66 65 64
162 27 49 254 252 253
80 71 9 18 23 23
97 169 48 62 63 55
203 24 53 63 64 66
163 28 52 63 60 51
68 97 53 87 80 77
239 51 48 77 77 71
205 33 52 69 67 64
190 53 48 34 35 31
164 28 52 54 47 41
236 32 48 60 60 54
165 25 48 255 255 255
186 137 2 83 86 86
167 24 48 184 190 197
98 134 48 61 62 58
166 24 48 167 170 175
164 26 48 37 30 26
85 61 46 194 204 206
165 27 48 19 18 16
93 100 1 40 42 39
224 2 47 25 26 22
158 142 46 30 29 26
166 27 48 23 26 20
65 182 52 69 67 68
98 117 53 67 63 59
129 59 2 36 32 24
167 26 48 68 54 36
65 135 51 90 88 85
105 88 47 53 54 41
184 54 48 25 27 22
167 27 48 63 59 40
156 125 53 65 63 61
222 25 52 76 74 72
149 141 2 125 132 134
207 21 48 81 83 69
172 66 47 30 29 22
180 74 1 241 233 222
167 24 50 248 248 252
103 160 48 60 60 56
167 25 52 94 85 51
168 25 52 71 64 42
66 143 48 106 107 103
191 94 47 13 16 16
208 45 47 83 83 72
168 24 52 135 122 78
93 77 53 96 90 85
165 26 52 67 60 37
165 28 52 65 59 54
166 27 52 50 49 47
86 123 53 75 69 64
182 38 54 40 35 21
39 101 41 132 126 121
167 26 52 46 44 43
187 90 2 71 79 80
58 88 16 60 63 61
166 26 52 32 34 13
160 118 48 57 60 47
152 107 48 67 68 62
26 118 8 147 163 162
126 89 53 105 94 86
192 121 48 68 68 61
168 26 52 91 86 81
131 163 47 13 15 16
168 27 52 140 125 110
65 175 2 102 108 110
170 20 49 115 131 138
73 133 53 129 114 102
74 91 7 28 25 17
45 86 7 102 118 113
172 20 50 255 255 254
225 102 46 17 16 14
194 104 47 39 37 34
143 58 52 74 68 64
108 120 45 24 27 28
170 21 49 81 82 83
137 170 52 83 82 84
133 163 2 92 97 97
217 59 48 99 101 85
77 137 2 207 213 196
81 70 7 136 139 131
95 184 2 79 86 87
169 22 49 120 121 124
170 22 49 54 71 94
171 21 50 189 194 206
72 95 41 101 99 88
71 174 2 87 95 99
172 21 49 28 19 16
87 197 2 94 98 99
195 21 52 19 21 23
70 90 20 51 50 46
70 72 46 224 248 255
173 21 52 36 33 26
173 23 52 125 112 100
115 99 44 34 33 27
175 19 49 21 15 11
178 30 53 64 61 60
132 134 2 99 108 109
176 19 49 24 16 12
227 121 2 70 77 77
177 20 52 67 63 48
153 44 44 33 34 28
66 84 17 240 251 255
187 90 46 41 31 23
126 83 53 94 92 94
178 20 52 86 81 78
178 21 52 119 105 95
87 201 48 31 31 27
66 111 53 62 60 56
234 110 53 66 66 67
140 53 48 40 39 30
87 90 53 97 87 79
174 21 52 69 66 24
174 22 52 72 69 59
170 54 48 60 62 55
158 47 48 81 81 67
205 30 52 68 64 61
175 22 52 116 104 95
177 22 52 122 108 95
68 93 53 63 60 56
170 25 52 132 119 107
210 127 46 37 37 32
169 26 52 113 102 95
181 134 45 56 58 57
177 23 52 81 75 73
100 201 53 53 53 52
130 95 53 128 115 106
132 83 52 122 109 100
131 176 53 63 63 64
253 58 47 54 54 45
131 157 45 45 44 40
177 50 48 76 74 63
232 79 48 67 67 55
124 149 2 87 95 98
71 180 2 81 87 90
173 25 52 59 58 63
161 49 53 127 115 105
145 153 48 49 49 44
66 147 51 92 89 88
171 27 52 115 104 94
195 89 47 31 29 25
179 46 44 19 20 17
140 96 2 172 173 165
172 27 53 53 54 56
130 61 48 71 71 60
218 74 44 21 19 16
78 161 53 64 60 55
181 51 44 46 47 42
102 147 41 26 25 23
49 117 1 203 193 172
122 86 1 223 225 221
190 48 53 94 89 85
175 24 52 55 56 59
228 17 1 37 42 40
140 185 2 126 96 108
175 25 52 57 57 58
35 91 44 187 188 182
177 24 52 144 129 113
83 86 7 65 65 61
65 95 47 12 11 10
175 53 47 49 48 41
38 140 34 159 190 202
178 24 52 154 136 122
68 95 5 40 36 31
105 146 52 84 82 80
177 25 53 162 144 130
178 25 53 164 148 134
201 49 46 51 50 44
174 26 52 153 136 120
174 27 53 73 68 63
176 27 53 106 99 91
122 63 49 38 41 35
73 104 53 70 66 61
175 28 53 82 76 72
149 155 47 53 50 44
177 27 53 166 147 132
62 161 1 109 125 128
97 139 2 81 90 86
178 28 53 167 152 138
229 11 1 40 40 34
161 29 52 56 53 46
192 58 1 209 210 195
51 59 41 195 203 200
160 30 52 76 72 70
162 122 2 94 98 99
61 86 14 60 64 54
39 89 7 64 68 61
162 28 52 89 80 69
217 22 53 113 105 101
162 29 52 92 86 79
100 100 1 119 118 99
201 87 39 43 40 34
162 30 52 133 118 105
131 139 53 62 61 59
161 31 52 136 118 105
199 21 52 17 19 16
167 29 48 46 40 28
246 56 45 27 26 22
167 30 47 109 85 59
82 75 52 95 87 82
127 167 48 93 91 79
51 103 46 37 35 31
70 92 10 39 43 45
198 50 53 70 68 67
137 70 47 82 80 68
154 53 52 47 44 36
166 28 52 23 22 20
28 79 48 177 202 207
121 177 40 15 14 3
230 54 1 70 78 78
191 101 53 65 64 63
164 39 52 24 25 21
166 37 48 50 52 42
66 81 25 124 138 139
168 35 48 35 34 30
65 177 48 70 72 65
213 104 44 30 29 25
266 80 2 123 130 126
8 76 36 212 215 218
186 33 53 110 99 92
74 183 52 76 72 70
209 99 41 51 50 44
205 131 52 94 90 89
168 36 48 78 80 65
123 146 48 66 65 51
168 36 49 38 37 26
60 166 47 21 20 17
168 35 52 24 27 28
81 85 7 60 61 54
165 37 52 25 27 27
33 115 6 57 47 33
167 36 52 34 37 37
220 75 53 90 85 82
119 169 48 48 48 45
106 60 49 125 150 159
145 116 45 31 29 23
122 96 1 220 218 200
195 73 44 19 20 17
170 53 53 114 105 99
44 149 53 50 51 51
166 37 52 45 45 46
94 79 44 15 16 13
242 47 1 82 93 96
43 143 47 66 63 54
71 125 45 49 45 38
225 106 48 14 15 14
179 90 47 47 47 41
205 94 2 24 25 24
163 32 52 154 136 122
235 100 53 72 72 73
132 135 52 94 91 87
76 123 47 43 41 33
207 144 49 35 35 33
136 178 2 108 110 109
167 29 52 146 131 117
95 75 7 87 96 94
214 43 53 63 64 67
185 96 46 30 31 31
167 30 52 134 116 104
128 159 44 42 33 30
168 30 52 144 125 111
120 137 2 78 88 93
158 94 1 80 90 92
144 51 48 37 37 32
150 131 48 65 64 55
35 100 49 104 120 128
85 85 48 18 17 13
168 30 53 164 147 133
90 118 48 118 117 103
164 32 52 118 102 90
228 40 48 65 64 55
197 52 47 108 109 102
252 70 45 35 36 35
44 103 8 87 104 103
167 30 53 164 148 134
140 149 2 102 92 100
91 172 52 76 75 75
81 111 41 88 84 76
225 20 53 63 64 65
252 92 2 74 77 75
168 31 53 167 148 135
118 105 2 160 158 142
87 113 53 109 100 91
92 56 45 185 192 190
140 43 52 126 113 102
90 129 1 147 152 150
166 32 53 169 154 141
91 93 48 35 33 21
167 32 53 152 135 121
159 83 47 53 53 46
161 33 52 77 66 56
189 67 53 99 91 86
150 45 44 27 28 26
51 127 48 69 71 60
160 35 52 170 152 135
142 37 45 255 255 255
161 34 53 61 62 64
92 82 53 113 104 96
94 93 48 34 33 21
201 29 47 40 40 30
162 33 52 117 97 84
161 34 52 156 139 124
92 82 52 13 14 14
163 34 53 114 105 99
67 137 48 79 80 70
225 11 52 11 11 9
47 115 52 37 38 38
160 37 53 112 104 98
181 161 2 143 147 146
161 37 53 159 141 126
162 37 53 115 107 102
93 150 2 132 104 121
163 37 53 138 127 117
75 124 52 74 71 70
164 33 53 137 118 105
227 28 47 45 45 35
209 101 49 15 16 8
166 33 53 137 127 119
183 59 47 50 48 33
163 52 48 49 52 44
164 34 53 61 61 65
264 107 53 74 70 69
165 34 53 156 139 126
56 141 48 102 102 92
197 86 2 74 84 83
41 113 6 59 61 56
218 57 1 101 109 110
197 37 52 166 147 131
226 64 53 87 82 79
166 34 53 169 152 139
140 90 53 109 100 92
223 5 3 19 16 14
242 119 5 86 90 85
177 49 48 70 69 60
180 90 47 35 35 30
166 35 53 164 147 134
49 145 48 101 96 73
200 41 53 60 61 63
219 103 2 50 53 53
133 175 52 88 87 86
224 107 53 66 65 63
168 33 53 147 128 113
71 191 53 68 67 66
167 34 53 186 169 157
89 60 49 143 190 220
238 113 2 80 88 88
223 7 6 25 15 12
168 35 53 42 42 42
82 166 53 52 52 51
75 179 2 80 80 86
197 127 52 92 90 87
95 56 45 255 255 255
166 36 53 35 34 31
102 70 7 130 136 133
127 93 53 111 101 94
215 114 2 39 41 39
166 37 53 46 42 34
189 51 53 65 62 61
166 36 54 140 122 109
173 32 48 45 44 30
125 160 48 56 56 50
41 99 19 104 89 67
213 119 52 93 89 87
212 32 52 77 74 70
162 62 1 223 222 203
173 33 48 20 20 17
3 80 42 254 254 255
101 168 2 90 98 100
192 92 53 63 63 63
75 127 53 52 51 46
132 168 48 55 55 49
173 32 52 24 27 29
102 94 1 150 148 126
171 89 53 95 89 86
82 65 44 223 249 255
225 125 54 68 71 78
178 29 48 6 6 4
187 104 53 62 61 62
174 32 48 26 25 18
168 116 53 67 64 64
54 103 7 65 63 56
184 112 47 37 38 35
179 19 52 75 71 64
129 75 1 120 127 123
176 31 49 22 22 16
131 82 48 61 61 53
177 31 48 23 24 20
45 139 38 216 245 255
178 31 48 21 22 19
59 175 53 56 57 57
164 55 48 59 60 50
114 188 48 51 52 47
177 33 48 22 23 18
177 29 52 26 28 29
17 70 43 248 254 254
104 79 48 59 59 48
176 31 52 30 31 30
169 53 52 82 77 73
169 35 48 58 57 37
65 86 29 120 122 108
170 34 48 76 73 56
77 97 46 47 45 40
136 137 45 31 33 33
229 117 53 63 64 64
170 35 48 51 51 41
170 32 53 68 69 73
66 162 45 35 33 29
138 73 1 202 201 187
172 33 48 15 16 13
154 149 2 91 98 99
119 117 47 87 87 70
171 35 47 34 33 26
79 144 53 85 79 74
130 187 48 75 74 73
173 35 48 36 36 30
50 83 45 215 243 254
29 120 7 176 177 166
180 22 52 56 57 59
173 34 49 37 40 30
216 23 47 59 59 49
171 36 48 43 42 34
38 136 47 38 39 33
57 166 52 58 58 58
85 92 45 24 26 22
194 121 46 21 20 18
61 99 1 12 11 7
172 35 48 65 61 38
172 36 47 38 38 30
172 37 48 43 44 38
91 67 25 138 159 162
99 75 7 98 103 89
163 47 53 148 139 132
237 79 53 69 69 69
172 37 49 94 97 83
221 64 2 103 113 112
172 33 52 25 26 28
169 35 52 30 31 32
170 36 52 27 30 33
46 152 2 123 126 127
34 123 2 170 169 144
165 157 2 84 89 89
174 33 48 24 25 21
74 137 2 80 91 91
228 53 48 82 82 75
175 35 48 18 18 16
229 112 53 62 65 68
42 65 48 101 130 141
64 177 48 80 82 74
117 145 48 76 75 68
176 34 48 15 16 12
173 36 48 23 24 19
113 86 1 205 203 186
174 37 48 45 49 40
221 121 2 92 101 101
70 144 52 70 69 70
175 36 49 57 63 52
195 19 48 26 24 17
176 37 48 28 29 23
217 77 48 58 58 53
82 176 52 70 69 67
180 95 52 95 91 90
176 34 52 24 26 26
73 115 1 189 192 187
181 32 53 47 49 51
178 35 52 26 26 23
169 28 52 98 91 85
75 166 53 83 77 73
41 99 23 114 97 75
52 137 2 201 202 181
69 80 49 84 92 94
171 28 52 162 145 129
226 130 48 92 88 77
209 126 47 45 44 40
118 108 53 95 89 84
228 16 1 27 30 28
160 126 52 95 92 91
171 32 53 167 151 135
170 29 53 62 62 64
171 29 53 161 142 127
103 134 48 66 64 52
170 30 53 63 64 66
171 30 53 65 66 68
239 53 2 71 80 82
70 103 54 160 156 151
172 28 53 126 113 103
172 29 53 163 143 128
247 113 48 113 113 110
94 98 53 95 87 81
79 188 47 36 34 32
132 146 52 83 83 83
137 107 48 66 66 58
43 105 1 223 222 216
173 28 53 109 100 93
43 125 1 76 85 84
216 55 53 74 72 71
172 30 53 162 144 128
125 106 47 155 155 145
28 120 8 173 174 167
73 177 2 91 98 100
125 149 2 85 92 95
173 30 53 169 151 135
53 63 41 147 158 158
144 124 2 74 85 90
169 31 53 137 125 116
65 136 52 103 95 90
112 195 6 81 85 82
170 31 53 100 95 91
263 74 2 105 111 108
39 100 30 178 189 193
137 90 2 208 206 186
120 174 2 106 105 109
169 32 53 173 154 141
240 49 1 80 91 95
109 194 52 79 77 76
94 157 48 84 83 71
173 32 53 26 28 29
58 166 46 35 33 28
275 94 53 79 77 75
171 32 54 67 68 70
76 199 2 66 68 72
141 45 52 118 103 92
133 150 53 78 76 75
243 58 53 60 62 65
172 32 54 68 71 74
175 29 53 64 66 67
276 106 6 71 61 57
104 145 2 109 115 116
237 87 53 68 66 64
88 119 53 68 66 67
127 135 52 62 62 66
177 28 53 160 145 131
86 146 48 59 59 48
71 102 52 117 114 110
67 140 52 92 86 82
227 100 48 13 12 9
177 30 52 26 29 33
108 91 1 188 186 165
176 30 53 46 47 48
224 70 48 27 26 19
214 21 47 55 58 43
177 29 53 74 70 67
49 140 2 214 213 193
175 31 53 35 34 30
174 32 53 28 30 31
69 120 1 144 147 144
50 126 48 62 64 58
168 90 48 84 85 75
86 119 44 45 43 41
206 46 46 66 65 60
117 91 52 151 134 120
173 31 54 66 69 72
147 38 52 101 94 85
175 31 54 115 107 100
177 31 52 21 23 23
71 109 52 100 95 90
176 32 52 26 28 27
215 94 47 33 35 32
55 134 51 83 79 77
73 168 2 100 91 100
230 22 53 57 56 57
157 45 53 142 127 114
22 99 46 129 128 95
192 55 48 25 21 11
176 32 53 55 54 52
35 114 44 22 21 17
178 32 52 12 14 14
86 118 41 49 48 43
129 190 52 73 70 69
178 33 53 92 87 84
59 150 2 91 100 103
171 33 53 25 27 28
171 34 53 27 27 28
41 100 25 117 99 77
195 56 48 79 76 64
170 33 53 64 63 63
169 35 53 44 42 39
60 142 48 84 84 73
170 35 53 34 32 30
215 42 52 82 79 76
30 96 46 210 209 202
171 35 53 44 43 40
95 69 8 29 28 23
121 66 3 19 21 21
263 94 48 90 90 86
249 55 47 23 23 20
125 192 48 53 54 51
41 124 52 81 73 65
67 120 53 139 122 105
69 149 48 90 90 82
169 34 54 145 129 118
87 192 2 108 106 112
170 36 53 51 48 46
19 98 44 151 160 161
153 149 45 43 45 44
198 125 2 84 87 86
171 36 53 53 53 54
169 37 53 60 57 53
95 80 48 42 39 28
138 117 48 60 60 53
172 36 53 75 73 71
46 107 8 177 180 169
168 162 53 60 61 62
151 117 44 30 30 28
174 33 53 57 53 46
40 143 1 177 175 160
227 134 19 107 111 113
171 44 53 120 110 104
174 35 52 27 29 28
131 173 53 84 78 75
174 35 53 103 95 89
70 114 1 41 44 40
216 31 48 42 41 31
175 34 53 57 57 58
215 131 54 75 74 70
186 46 53 91 86 82
176 34 53 65 65 66
175 133 2 82 84 86
180 52 44 29 28 27
111 106 1 182 179 157
177 34 53 68 68 70
173 70 48 54 54 48
239 109 2 43 46 42
175 36 53 144 127 114
121 193 47 44 44 41
175 36 52 15 16 15
211 103 48 43 44 40
93 74 53 80 73 67
174 37 53 103 95 89
119 87 48 84 85 79
142 52 48 31 32 26
85 116 39 29 28 23
173 38 43 52 52 49
189 131 53 65 62 61
176 36 53 99 93 89
232 24 47 40 39 32
180 30 47 9 11 9
177 35 53 60 61 63
207 95 44 48 47 37
62 85 21 137 144 146
86 188 48 43 41 30
106 106 53 69 65 61
178 36 52 45 44 42
97 128 52 99 96 95
99 176 52 73 71 69
176 37 53 61 63 63
177 37 52 28 28 26
193 21 53 37 37 38
178 37 52 32 31 31
100 119 52 86 83 82
177 37 53 84 80 78
112 176 49 41 38 29
43 68 47 80 103 110
54 110 2 30 33 30
90 99 1 160 137 111
99 142 47 37 39 36
99 160 2 126 129 133
142 37 38 241 251 248
124 87 53 106 98 89
142 39 40 249 250 251
142 41 40 85 66 48
71 88 53 68 65 62
97 207 7 88 86 88
185 93 44 34 31 28
207 34 52 71 68 66
142 40 39 151 135 121
141 67 52 81 72 67
169 39 52 23 22 20
18 105 49 173 212 229
206 108 52 93 88 87
142 38 43 217 236 245
70 192 44 21 22 19
217 55 48 57 56 45
141 41 41 59 45 32
83 130 1 239 232 223
124 147 2 71 80 83
140 40 42 255 255 255
141 41 42 83 72 59
150 151 52 88 86 89
43 113 48 42 42 30
123 65 47 68 67 51
143 40 41 77 71 65
146 98 45 46 49 43
140 42 38 49 44 34
35 126 2 219 191 174
204 134 53 63 63 62
139 42 38 50 48 36
139 42 39 56 52 42
50 147 2 223 222 203
47 59 48 239 253 254
139 42 42 101 98 89
142 37 43 255 255 255
143 39 43 194 207 207
166 96 1 76 83 84
142 39 44 241 246 247
149 127 48 68 69 58
118 74 52 92 87 82
140 42 43 117 121 122
51 114 53 99 107 110
124 166 48 41 41 38
141 41 44 58 51 41
237 38 48 80 81 76
116 125 48 84 84 75
204 46 44 99 96 81
141 41 45 36 31 25
142 40 43 137 131 122
257 84 2 100 105 102
142 37 46 183 229 255
80 66 45 239 250 254
184 135 48 70 69 67
90 71 32 133 124 109
185 85 53 72 70 67
142 39 47 239 244 247
138 162 49 27 28 19
155 149 45 46 47 45
213 58 47 30 28 19
127 65 52 39 37 35
143 39 46 215 230 229
95 118 53 58 56 53
148 50 49 64 72 53
72 99 48 26 26 18
247 47 47 82 79 64
140 42 47 32 31 28
141 53 47 66 66 55
190 151 53 66 66 67
113 143 52 96 97 93
148 50 48 41 42 34
94 168 48 80 81 73
124 157 52 89 89 91
140 42 46 29 26 19
189 80 2 77 87 88
87 116 47 48 46 41
174 46 48 53 52 46
195 92 49 29 32 19
147 43 44 33 27 21
145 46 44 38 33 27
146 47 45 26 25 21
89 114 44 40 36 31
89 210 52 69 68 65
146 46 44 29 28 23
88 69 16 119 130 128
66 164 48 101 96 75
147 45 44 32 32 28
231 57 48 92 92 84
148 45 44 24 25 22
100 95 52 78 75 73
149 45 44 30 31 28
115 95 1 219 218 198
181 151 47 78 77 70
99 123 53 115 102 92
135 155 2 86 90 92
50 106 7 249 243 240
146 78 48 48 48 41
54 77 44 240 248 249
41 69 47 127 161 179
149 46 45 16 17 16
232 21 47 51 49 37
191 37 52 59 58 53
68 177 53 55 56 59
43 121 48 70 71 57
92 168 2 99 106 107
148 46 47 23 25 22
131 63 53 130 115 103
94 57 9 163 175 164
92 197 2 77 84 84
151 41 44 34 26 18
66 85 49 103 106 119
73 196 2 92 93 94
151 42 44 34 34 32
153 40 44 37 26 21
241 114 2 76 81 80
135 161 52 78 77 77
253 90 2 79 84 82
42 129 1 83 86 85
78 103 1 150 147 113
91 70 47 157 157 156
43 116 1 33 37 34
152 42 44 26 26 24
114 167 45 12 13 12
154 39 44 40 27 21
163 158 52 87 84 84
166 80 53 119 109 100
88 149 46 27 26 21
156 38 44 41 38 31
157 38 44 26 21 17
191 73 53 88 84 83
158 38 44 42 45 43
157 39 44 31 31 28
63 108 53 52 50 47
159 38 44 33 34 31
225 6 7 37 27 18
72 92 53 63 60 55
49 147 48 92 92 80
122 62 53 54 51 45
158 39 44 29 31 28
118 59 52 125 113 103
130 165 53 58 57 58
155 40 44 25 27 24
94 78 44 26 26 23
156 40 44 25 28 24
210 103 39 55 51 41
154 41 44 28 29 26
111 199 6 125 126 126
156 41 44 24 24 22
51 131 2 172 172 157
114 119 1 134 100 116
146 78 1 108 117 120
122 95 44 57 49 39
61 73 36 220 232 232
155 42 44 29 29 28
94 123 53 62 61 60
101 184 53 85 81 80
156 41 45 24 24 18
54 128 2 198 197 175
216 108 47 14 14 12
126 147 2 78 88 93
71 115 52 70 69 69
72 129 48 96 92 80
157 41 44 28 28 26
144 38 52 34 29 24
40 106 0 151 152 138
158 40 44 36 38 34
143 118 47 35 34 31
159 40 44 36 36 34
226 35 53 65 64 66
117 178 53 49 48 49
156 42 46 21 20 14
179 65 48 34 35 28
74 94 48 133 126 101
156 41 47 18 18 14
214 97 53 83 80 78
202 46 53 102 93 88
30 105 51 33 31 21
155 42 47 20 19 15
85 173 52 68 68 69
157 41 46 32 32 30
90 141 52 91 89 88
171 44 48 98 97 79
155 169 53 60 59 60
158 40 46 77 77 76
184 94 2 74 83 85
85 100 1 149 145 114
157 41 47 27 26 23
87 123 1 240 239 232
157 42 47 16 16 13
150 44 44 39 40 33
58 79 46 187 201 205
183 42 53 66 66 69
151 44 44 25 26 24
98 191 52 85 81 80
47 85 46 192 203 198
54 101 45 40 40 39
67 123 1 126 130 116
153 43 44 24 25 22
270 90 48 65 67 59
243 57 2 90 90 93
153 43 45 16 17 15
151 44 45 31 30 25
49 152 52 57 58 59
198 33 53 113 104 98
98 205 8 105 106 103
162 74 47 40 39 34
150 46 44 8 8 7
152 45 44 33 34 31
153 43 46 32 30 27
58 99 10 177 207 218
247 83 53 69 70 72
145 147 47 54 53 49
189 19 53 161 143 128
148 126 53 86 81 77
154 43 46 18 18 16
108 111 1 191 190 166
188 152 48 77 78 73
152 44 47 26 26 22
153 43 47 16 16 14
208 23 48 85 92 75
212 64 2 102 112 114
209 21 54 63 64 66
103 105 47 38 37 28
88 163 2 93 101 102
153 44 47 37 37 33
191 104 48 58 59 48
44 146 2 98 103 105
210 59 47 80 68 34
186 33 45 9 10 9
150 45 46 35 31 24
186 31 48 42 42 33
150 45 47 42 42 31
72 142 47 47 42 28
142 54 53 130 117 107
191 106 47 50 45 37
101 132 48 79 81 75
88 123 40 47 48 43
154 42 47 23 23 18
119 57 52 125 111 100
136 70 53 171 157 145
213 54 53 66 66 65
133 73 53 165 151 140
156 42 47 20 20 19
142 47 44 64 62 56
259 71 47 82 84 69
141 48 44 29 29 26
3 80 41 254 254 255
140 49 44 36 36 32
146 89 47 67 64 56
139 64 1 183 181 164
147 144 48 79 79 74
46 97 52 44 44 44
42 110 7 69 72 69
122 193 52 72 69 68
211 51 48 116 117 99
142 48 44 43 43 37
148 151 48 40 41 36
116 133 47 24 23 20
141 72 47 73 74 65
144 47 44 31 26 22
124 123 1 91 99 99
226 128 41 60 53 42
236 45 1 98 105 107
142 49 44 45 45 41
72 124 44 66 60 51
143 49 44 50 52 46
143 48 44 30 30 27
58 148 51 83 80 78
147 124 47 35 35 31
140 50 44 27 28 24
132 92 2 205 205 192
213 66 48 98 95 77
141 50 44 30 31 28
140 51 44 57 55 51
242 85 48 67 68 61
142 62 53 108 102 95
237 39 53 76 74 73
140 76 52 75 71 66
87 131 53 54 54 53
150 54 47 64 64 54
141 51 44 25 26 21
243 103 48 51 51 45
104 86 53 121 106 96
230 52 1 74 82 83
140 51 45 76 73 66
85 159 48 55 54 45
204 23 53 88 84 80
38 111 53 45 43 40
142 50 44 33 34 31
124 150 53 61 59 58
56 68 46 56 82 93
219 77 53 65 66 67
251 65 48 74 75 65
206 31 53 107 98 92
105 172 53 56 55 57
251 116 54 78 75 73
142 50 45 24 24 21
115 74 53 153 139 127
144 49 47 23 22 18
94 115 52 92 89 87
141 38 49 227 232 241
140 51 46 26 22 17
67 85 51 28 29 29
114 93 48 94 96 92
141 50 46 35 31 26
32 108 52 53 53 54
145 153 52 87 87 87
82 196 48 39 38 27
141 50 47 45 43 38
142 50 46 14 15 13
143 49 47 41 40 30
52 105 53 43 43 41
142 51 47 27 27 25
75 140 52 77 75 74
113 70 1 23 22 17
110 79 48 54 54 43
10 72 42 252 254 255
138 69 53 121 108 97
157 71 48 65 65 59
39 100 38 177 191 196
97 186 53 48 49 48
145 47 44 47 42 36
252 57 53 73 73 74
27 77 48 229 249 255
248 109 54 64 65 69
145 48 44 43 42 37
123 89 53 117 108 98
95 170 53 57 55 54
147 48 44 18 20 17
75 159 2 80 89 92
197 49 53 74 72 72
41 119 48 61 61 47
121 82 53 114 101 91
145 48 46 58 53 44
59 164 53 54 54 55
174 43 52 77 76 74
144 48 45 26 25 20
123 145 46 40 38 32
255 116 48 74 74 70
132 177 2 91 94 94
238 46 48 92 95 74
93 83 52 11 12 13
92 126 39 19 20 18
98 201 52 70 70 71
177 103 2 86 94 96
191 19 53 140 129 120
156 60 51 100 94 91
159 53 52 78 74 71
156 166 48 66 66 53
146 48 46 11 11 10
63 143 47 219 246 255
155 121 2 116 119 121
216 29 53 70 70 71
112 101 45 33 30 22
146 47 47 40 40 32
124 78 1 193 194 179
64 126 51 97 93 89
153 55 52 67 63 58
147 47 47 44 42 33
95 132 52 94 93 92
164 44 53 99 95 91
88 175 2 86 91 91
41 67 48 102 132 146
148 47 47 21 21 18
183 43 48 26 26 20
190 83 2 83 92 93
147 49 47 32 32 22
177 133 2 76 78 78
145 49 47 33 34 29
113 84 1 197 196 174
199 146 48 90 90 88
147 50 47 66 65 51
106 155 39 40 37 33
107 188 2 78 85 85
147 51 47 77 77 68
233 66 48 43 43 35
139 142 53 100 96 94
153 45 52 33 33 33
119 76 51 117 110 105
160 134 48 83 82 76
148 51 47 58 57 42
140 52 47 19 19 16
65 87 2 214 213 189
161 47 53 167 152 139
139 53 47 20 23 16
108 101 1 200 199 180
196 101 52 94 90 88
104 78 47 50 49 36
244 43 1 63 72 76
141 54 47 72 71 58
160 58 47 53 53 45
159 42 47 69 69 58
141 55 47 52 52 43
142 54 47 36 37 29
176 150 53 61 60 59
76 121 44 59 53 46
221 4 45 10 11 11
191 47 48 26 27 20
142 56 47 41 43 37
148 52 47 75 74 60
200 116 48 66 66 57
266 109 8 147 139 131
149 52 47 32 32 28
75 99 43 84 80 69
185 56 44 12 12 10
142 75 53 114 105 95
173 129 2 105 89 97
149 53 47 47 48 39
76 100 44 37 39 35
213 47 53 63 63 66
114 163 44 36 36 32
201 29 48 29 29 20
118 193 52 71 69 68
148 55 45 88 83 51
96 136 53 56 55 55
48 124 1 208 208 191
148 56 46 53 51 39
148 55 46 46 48 39
110 94 1 200 200 180
154 48 47 74 74 61
54 96 52 54 53 51
192 53 53 81 77 75
254 78 2 98 104 102
156 156 53 76 74 75
99 80 53 138 126 118
71 154 53 65 62 57
154 49 47 42 43 35
92 69 18 254 254 254
60 76 23 223 222 222
155 49 47 36 35 29
134 72 47 68 67 58
271 95 53 73 70 69
67 83 2 251 251 251
156 51 45 8 12 9
131 72 1 182 185 174
216 131 48 72 72 63
156 51 46 47 48 41
192 80 53 96 91 89
51 60 47 117 151 168
197 20 52 13 16 18
155 50 47 90 89 76
119 63 44 42 40 34
154 50 47 36 38 33
157 50 46 150 142 124
172 132 2 96 98 97
38 99 22 155 165 165
133 174 2 85 89 89
210 22 52 27 26 22
94 161 53 52 50 49
158 49 45 18 19 18
185 60 53 87 82 81
27 110 52 53 54 53
47 103 8 208 211 208
158 50 46 33 40 33
237 87 48 87 89 81
88 119 48 116 111 90
143 132 53 64 62 60
158 49 46 62 57 53
151 53 45 24 26 26
98 119 53 64 62 58
236 128 53 66 66 64
140 148 2 89 92 93
121 176 52 81 80 79
149 54 47 74 78 67
241 46 1 78 86 90
188 150 47 60 59 50
163 139 47 20 18 16
204 142 2 130 131 129
150 56 47 68 69 60
99 77 2 13 13 11
36 117 1 15 14 8
123 77 51 108 101 96
176 99 52 95 92 90
200 90 3 56 58 50
151 56 47 51 52 45
40 88 8 72 77 70
154 51 45 24 25 25
192 143 2 100 101 99
242 91 48 72 72 65
154 52 45 8 10 9
175 61 52 105 100 96
158 53 47 45 46 38
157 169 48 99 96 84
71 161 48 66 63 47
170 52 48 55 57 50
142 37 48 178 223 255
142 38 49 111 127 150
165 151 47 57 56 55
90 179 48 68 69 64
140 39 49 226 229 235
193 134 48 66 66 63
141 39 49 252 255 255
109 196 48 52 51 46
144 37 50 254 254 254
37 110 52 89 86 85
42 122 52 14 12 11
140 41 48 30 24 19
199 26 53 65 64 67
33 131 52 56 58 59
177 104 2 94 102 105
141 41 48 36 25 19
140 40 49 253 255 255
80 105 53 111 101 92
141 39 50 191 198 205
142 40 48 27 23 20
55 90 49 141 169 174
156 115 46 18 24 23
167 48 52 50 48 44
94 76 52 122 118 117
195 71 48 67 68 60
196 69 45 78 80 73
137 107 52 78 77 75
141 40 52 71 70 29
78 117 48 69 70 64
140 41 51 62 61 54
93 82 48 24 23 15
142 41 52 104 94 87
64 104 53 82 78 74
207 51 47 91 88 69
144 116 46 29 28 24
144 41 52 150 133 118
226 118 54 71 72 73
222 4 3 5 5 3
146 38 52 83 81 68
86 202 2 66 72 72
87 129 52 91 88 86
236 129 2 55 64 64
45 98 51 50 50 50
126 146 48 62 61 53
42 98 27 203 216 215
67 84 35 222 213 203
110 91 52 92 88 87
148 38 52 131 116 104
80 118 52 62 59 59
145 40 52 134 117 103
73 84 52 69 64 60
140 42 52 87 81 75
91 148 47 23 20 20
105 130 2 115 123 123
226 10 46 11 11 11
83 88 48 18 17 12
142 44 52 151 135 123
143 42 52 104 96 92
41 97 44 174 200 211
149 40 52 122 110 101
26 75 48 226 247 249
54 137 47 54 52 43
83 206 52 68 68 68
123 61 7 17 23 23
147 41 52 105 95 89
115 181 53 54 54 55
149 41 53 158 141 126
115 142 2 93 101 105
55 150 48 73 74 64
121 83 1 156 157 147
132 60 53 127 112 99
38 107 8 91 103 101
40 88 7 62 69 64
143 44 52 121 109 101
186 39 48 33 33 24
140 45 52 142 127 114
143 45 53 161 143 129
228 113 49 26 27 18
120 180 52 91 90 92
158 69 47 52 52 44
180 47 53 104 96 93
144 45 53 124 114 105
181 122 48 48 48 43
244 43 53 72 71 71
201 49 44 17 16 14
143 46 53 166 151 138
74 151 48 85 86 79
234 52 53 67 65 64
144 46 53 124 113 105
138 64 52 63 59 52
83 198 48 35 35 28
119 182 2 86 91 92
145 43 52 103 95 89
177 46 48 67 68 55
64 84 3 246 248 250
146 43 52 154 137 122
208 133 2 71 72 69
39 104 7 14 18 18
245 112 54 92 88 87
147 42 52 153 135 121
148 43 53 160 141 127
182 57 53 134 122 114
121 177 43 22 21 21
149 43 53 156 139 124
152 42 53 157 138 125
211 113 49 14 13 9
145 45 53 108 100 94
211 63 53 64 64 66
146 45 53 157 140 127
195 37 48 96 95 79
126 185 44 28 26 25
167 85 47 58 58 50
79 80 52 75 71 67
107 170 53 54 53 54
111 159 52 76 78 81
197 70 53 65 65 68
146 46 53 123 112 103
147 45 53 155 137 123
90 105 52 109 103 101
41 88 9 69 90 89
71 125 44 55 52 44
125 120 48 92 91 85
148 45 53 162 143 129
226 22 1 182 177 147
149 45 53 114 106 98
147 46 53 127 116 107
115 157 2 84 91 91
65 93 5 236 235 220
149 46 53 48 48 49
85 130 52 89 87 85
128 191 24 30 30 30
151 99 48 89 89 80
17 100 46 233 247 248
190 21 45 12 11 11
131 127 2 101 95 109
157 42 48 49 48 34
122 153 48 63 61 55
218 32 48 45 45 34
193 88 44 33 31 28
158 42 48 65 63 47
63 178 48 72 72 64
223 4 2 16 15 16
238 76 47 57 57 47
208 121 52 90 87 85
157 41 52 25 28 31
92 164 46 80 76 53
153 44 48 21 21 18
150 46 48 40 40 32
80 69 49 234 252 255
136 78 52 80 75 71
149 47 48 53 53 42
52 103 44 31 30 25
116 83 1 200 197 175
151 46 48 57 57 45
72 93 12 33 32 28
254 105 48 64 64 59
7 74 36 209 215 222
94 99 1 57 59 56
153 45 48 38 39 34
66 72 47 158 169 171
228 37 47 70 69 61
216 63 2 99 109 110
226 17 53 68 68 69
93 161 2 93 103 104
152 44 52 27 28 32
59 77 35 219 211 205
174 47 47 59 57 45
149 46 52 35 35 33
120 94 53 113 103 94
71 190 2 81 88 89
132 86 2 190 192 181
44 96 19 236 255 255
92 131 39 30 28 20
155 43 48 36 37 29
138 180 2 123 125 124
156 44 48 32 33 29
111 183 48 57 57 50
158 44 48 69 70 58
176 74 48 57 59 51
155 45 48 39 39 34
108 188 46 56 55 46
230 25 48 64 63 54
246 48 2 57 68 72
91 131 44 40 41 39
204 118 53 65 64 63
156 45 48 28 28 24
91 85 48 84 83 70
103 77 52 18 18 20
64 113 52 63 64 63
211 66 48 90 88 77
154 46 48 36 38 31
223 21 52 78 73 69
155 46 48 47 49 42
68 166 52 82 81 79
156 46 48 70 70 59
189 123 44 33 32 29
241 32 47 83 84 76
211 54 48 95 94 73
156 42 52 25 28 29
101 87 48 34 33 24
216 40 47 37 37 28
120 177 40 20 18 18
156 44 52 37 38 38
111 96 48 70 70 59
139 186 44 51 50 40
153 95 1 99 103 103
150 39 52 155 136 123
121 85 48 73 75 66
152 38 52 160 142 130
117 94 53 116 105 96
68 182 48 72 73 67
153 39 53 170 155 143
160 147 2 89 92 93
136 119 52 63 63 66
244 90 44 28 28 24
150 40 52 146 129 115
212 23 48 34 34 23
192 137 2 75 77 76
151 40 52 155 137 123
151 40 53 25 26 28
42 110 1 17 17 16
149 41 52 146 129 113
117 128 47 79 76 65
57 128 1 192 193 173
152 40 53 143 127 114
141 97 2 159 160 150
52 125 1 199 199 179
242 119 10 161 166 163
152 39 53 154 136 122
150 148 48 28 27 25
111 169 47 16 16 12
153 40 53 167 151 139
121 176 49 52 50 35
128 92 47 40 41 32
215 128 53 64 62 61
109 82 53 127 110 98
115 98 47 29 28 22
110 174 2 94 101 102
155 38 53 157 139 125
130 59 49 123 125 110
156 38 53 123 111 101
42 97 4 241 248 251
224 19 48 59 58 47
155 39 53 163 145 129
63 83 43 172 187 189
106 95 52 89 84 81
140 86 52 105 100 96
265 95 46 76 79 72
181 26 53 171 152 139
157 38 53 165 147 132
158 39 53 100 94 91
237 120 49 8 8 10
158 118 48 80 81 74
190 35 52 44 42 38
150 96 46 48 50 43
154 40 53 135 124 114
108 145 53 54 52 52
223 115 48 45 45 41
156 40 53 151 134 119
69 159 44 39 39 34
67 85 26 172 143 116
194 23 48 36 36 28
157 40 53 162 145 133
60 146 52 80 78 77
173 59 48 57 58 52
43 99 31 169 162 132
229 15 47 59 59 45
152 80 48 53 52 47
163 74 53 114 106 101
196 110 2 62 66 65
116 78 53 65 57 51
158 41 53 46 45 38
10 89 47 236 253 253
39 113 8 142 144 136
158 40 53 53 55 57
140 101 2 87 93 94
158 42 52 33 33 32
82 200 2 66 71 72
38 88 45 211 215 214
197 28 54 63 64 66
139 175 48 71 70 62
158 40 54 69 70 73
157 42 54 162 150 137
176 147 48 72 72 67
91 67 11 148 165 163
151 42 53 160 143 129
74 169 2 73 82 84
243 90 2 85 92 90
155 79 1 215 215 199
149 44 53 113 105 98
136 105 53 133 124 118
152 43 53 165 147 133
239 63 2 83 91 90
87 211 52 70 69 67
191 47 53 95 88 84
153 43 53 74 69 65
150 147 2 92 95 96
90 56 44 208 214 209
152 44 54 171 152 138
154 43 54 151 133 118
39 104 8 111 116 106
153 44 54 170 151 139
23 80 48 183 207 221
188 99 53 65 63 62
151 45 53 38 37 33
177 43 40 38 40 37
150 47 53 88 78 71
151 46 52 40 39 36
54 142 2 213 213 194
52 127 1 206 206 184
120 62 7 77 89 91
155 123 47 69 67 67
114 84 52 72 67 64
163 160 48 62 62 56
172 67 47 26 24 18
152 45 53 55 53 47
171 75 53 80 77 73
152 46 52 32 33 32
156 43 52 33 34 30
112 100 52 65 61 62
43 100 0 224 235 238
90 147 44 61 60 49
154 44 52 30 31 28
105 98 52 64 64 62
145 85 48 76 74 66
155 44 53 93 84 78
61 63 48 226 248 255
166 118 2 92 100 101
229 50 45 81 79 63
155 43 54 145 129 118
157 43 52 28 28 28
133 67 1 110 114 106
68 84 51 42 48 41
64 118 51 102 99 96
105 105 47 35 32 24
136 161 47 54 52 46
161 63 48 63 64 56
157 44 52 17 17 17
60 164 48 87 85 77
71 93 13 36 36 33
214 110 47 49 47 45
227 46 48 68 71 61
158 44 53 107 98 92
154 45 52 24 25 25
200 137 52 90 88 87
155 45 52 22 23 22
224 73 2 92 96 97
231 123 54 65 64 62
157 56 48 70 71 59
156 45 52 19 20 20
28 77 47 94 119 121
189 88 53 72 69 68
176 74 53 78 76 74
155 45 53 137 122 111
15 75 47 252 255 255
56 80 45 167 200 214
204 117 53 62 61 61
139 79 52 93 85 81
154 46 52 18 19 20
216 54 53 64 65 66
114 86 53 120 108 98
204 92 53 66 65 63
116 123 52 100 96 94
154 46 53 68 67 66
156 46 52 14 14 15
235 33 1 229 227 212
56 164 2 88 100 105
118 83 52 76 72 67
135 165 53 65 64 63
156 46 53 125 111 103
267 110 44 55 52 47
104 201 5 81 86 82
157 46 53 78 79 80
173 40 39 73 75 72
183 128 2 79 81 82
114 67 9 147 163 160
203 84 2 113 127 127
167 81 1 235 234 221
158 47 53 125 114 106
27 118 8 136 146 143
196 77 42 80 77 72
141 51 48 48 48 37
167 128 47 67 66 58
231 55 1 74 80 79
223 18 53 79 79 81
208 92 47 5 5 6
232 24 1 177 173 147
143 51 48 40 39 32
57 168 2 104 113 119
95 131 1 114 122 129
147 47 48 27 27 23
147 48 48 55 59 48
246 71 2 115 121 120
65 105 52 85 75 69
180 104 53 93 88 85
251 114 10 46 48 47
145 50 49 90 90 80
146 49 48 62 61 51
148 51 48 49 51 40
55 135 47 52 51 44
145 59 54 44 40 34
42 97 27 207 210 211
146 50 52 45 47 48
38 100 43 46 64 64
195 99 53 76 74 71
38 98 48 87 100 101
61 163 2 80 90 96
145 49 52 37 37 36
113 72 1 28 26 20
151 64 48 89 92 81
146 51 51 37 38 40
195 136 48 52 52 46
237 43 47 70 70 61
152 178 2 136 135 131
141 52 49 113 125 105
141 54 48 33 33 28
46 139 52 67 66 66
92 68 2 240 250 253
144 52 48 44 45 38
116 190 48 36 36 34
143 53 48 64 64 53
142 54 48 51 53 43
118 184 48 39 39 31
169 42 48 83 81 67
144 53 48 43 44 37
157 154 2 96 98 99
227 17 1 37 41 39
92 80 53 35 35 34
139 55 49 116 121 99
91 103 52 78 76 74
121 166 2 91 100 99
140 56 49 125 135 111
144 177 52 77 75 72
210 140 54 65 65 63
51 146 47 78 78 70
231 87 2 82 88 86
128 122 48 92 91 84
227 24 52 79 75 72
143 55 48 79 80 70
108 71 44 45 48 45
142 55 48 68 72 57
54 128 48 68 70 61
191 37 47 42 41 29
143 56 48 63 63 54
143 55 49 79 87 70
197 135 53 61 61 63
126 120 2 109 108 110
144 56 48 74 77 64
145 130 52 90 90 90
61 76 21 165 165 161
139 52 52 20 20 18
63 85 12 100 104 99
182 151 47 100 96 81
140 56 52 17 18 18
138 176 2 71 72 71
97 110 44 38 28 21
43 119 2 51 64 55
129 92 48 27 26 20
78 200 53 73 71 69
142 55 52 30 30 28
131 187 2 87 87 87
159 64 53 109 104 99
56 123 1 206 205 184
146 52 48 44 44 34
52 136 45 55 53 48
198 54 48 80 79 67
228 117 54 67 68 68
128 159 45 46 43 41
192 105 2 94 83 88
145 53 48 99 97 76
133 188 53 54 56 57
144 53 49 95 100 76
55 103 51 27 31 34
161 100 47 56 56 48
193 26 48 72 74 62
248 94 53 69 68 68
123 97 48 47 43 29
253 74 48 56 57 48
147 52 48 55 55 45
268 86 54 93 85 82
148 52 48 16 18 16
109 128 47 62 62 53
200 54 47 88 85 69
111 90 48 40 39 31
65 86 6 47 34 18
147 53 48 90 85 58
75 91 3 5 5 3
115 69 6 58 58 53
147 53 49 137 146 117
112 130 1 99 110 112
84 135 45 95 94 89
147 54 48 72 73 61
272 92 48 46 45 42
127 146 52 93 90 88
52 162 47 76 75 66
192 42 53 57 58 60
223 93 48 42 41 28
147 54 49 114 125 99
88 105 1 139 132 91
60 126 1 194 194 167
145 54 48 107 104 82
58 126 1 156 155 136
184 53 53 63 62 63
34 127 52 43 43 44
171 133 47 48 47 43
203 47 44 55 54 45
145 56 48 78 83 68
186 102 2 76 83 84
144 122 2 81 93 96
147 55 48 47 50 43
84 63 44 186 197 197
149 54 48 114 113 104
217 26 53 99 96 94
147 56 48 59 60 50
48 91 49 204 237 255
148 56 48 70 70 59
190 42 53 67 68 71
147 52 51 45 43 41
148 51 51 23 22 20
151 55 49 89 97 77
240 121 48 54 56 53
147 53 51 70 66 62
148 54 51 74 71 67
62 157 52 63 62 65
236 36 48 82 83 76
201 26 54 51 50 47
140 47 53 138 123 110
113 81 53 129 115 104
140 49 53 137 121 107
60 132 46 56 55 50
141 49 53 141 126 114
27 121 46 46 44 35
110 95 1 215 212 191
197 122 53 73 70 69
165 126 2 89 93 93
141 48 53 155 139 128
44 102 8 59 79 80
221 122 54 83 79 77
134 126 53 99 91 85
152 50 52 12 13 11
144 47 53 153 137 124
39 114 5 128 128 121
197 34 47 30 29 21
142 48 53 157 142 129
201 129 49 51 53 39
143 49 53 77 75 73
186 30 53 90 84 81
129 93 52 84 79 76
155 90 52 84 80 78
140 51 53 58 55 51
134 60 1 26 25 20
66 84 41 246 252 254
99 203 8 83 89 84
179 40 48 29 29 23
142 50 52 22 21 20
143 51 53 132 117 101
144 51 53 110 99 93
57 165 2 109 101 112
142 50 54 114 100 91
97 103 53 82 75 70
218 14 45 21 22 15
146 48 53 31 31 29
114 140 48 70 68 59
131 103 2 193 194 178
64 97 53 50 48 45
145 48 54 160 143 130
174 147 53 70 67 65
220 43 1 210 155 174
146 48 54 170 155 142
132 96 1 195 193 185
149 47 53 77 71 65
87 194 53 58 58 58
164 58 48 66 68 61
35 93 46 254 254 254
179 48 39 34 35 31
147 49 52 24 24 22
162 48 53 113 105 97
119 125 53 64 64 64
54 133 2 196 193 167
157 165 2 98 101 101
105 188 48 51 51 45
148 48 52 26 26 24
189 123 2 93 97 98
148 49 53 78 72 66
147 47 54 159 141 127
226 132 2 73 81 81
198 52 44 16 16 14
87 81 44 15 14 13
146 49 52 31 32 32
256 79 48 64 61 53
145 51 53 118 105 96
275 97 2 47 50 49
60 62 47 227 249 255
146 163 48 68 67 65
146 51 52 17 17 19
225 24 52 83 78 75
142 123 52 92 89 87
47 130 1 212 214 196
82 130 48 145 143 124
80 134 53 96 86 79
227 40 1 219 218 202
195 106 53 66 63 62
222 75 48 86 86 73
184 105 53 103 95 88
129 63 47 56 56 46
20 109 49 46 48 49
193 31 51 77 75 73
147 49 53 143 129 118
153 158 2 86 90 91
111 193 52 74 72 71
186 97 53 60 58 57
147 50 52 21 22 24
147 50 53 75 75 76
72 110 52 101 96 93
148 49 52 18 19 21
51 137 45 60 58 52
76 90 2 16 15 11
148 50 52 12 14 14
66 163 53 66 65 67
149 50 53 136 122 110
144 95 48 101 104 93
156 55 48 63 65 55
129 119 47 63 64 58
136 185 2 98 103 102
167 59 52 87 84 81
118 115 47 85 82 67
147 51 53 115 103 95
199 32 48 30 28 18
147 51 52 14 15 16
217 132 48 100 99 90
89 71 44 109 111 109
149 51 52 50 46 42
29 115 52 48 52 59
123 152 53 56 55 53
99 92 47 59 57 47
140 52 53 75 66 58
57 100 8 96 97 90
116 127 1 80 85 87
141 51 52 28 26 27
46 95 50 234 244 252
141 53 52 22 23 24
205 120 52 91 89 88
93 86 49 115 128 103
144 58 53 115 105 98
142 51 52 27 26 26
52 111 45 56 60 59
187 47 48 63 64 59
231 81 48 86 86 70
142 52 53 99 90 83
216 32 48 41 40 29
143 52 52 30 32 31
243 41 48 97 110 85
143 52 53 125 112 100
248 45 48 63 62 54
143 51 52 36 36 37
144 52 53 119 107 98
143 84 44 39 38 31
93 70 32 89 80 62
142 53 53 107 97 88
42 111 53 41 42 42
47 128 48 45 46 39
184 22 53 122 113 104
103 99 1 234 158 172
142 53 52 16 18 17
169 43 48 78 79 66
144 53 53 129 113 102
62 62 47 226 248 255
140 55 52 14 15 12
129 101 2 172 173 159
255 114 48 125 124 121
172 100 44 34 34 28
140 54 53 100 89 82
141 55 52 13 14 13
100 77 3 19 19 17
122 164 48 30 28 25
140 55 53 80 80 80
62 98 53 42 39 34
197 138 53 105 98 95
140 56 53 102 93 87
58 161 29 153 191 194
143 54 52 14 14 15
157 98 47 39 42 39
143 54 53 129 113 103
243 53 48 49 49 43
138 146 52 91 87 87
99 76 2 26 25 20
144 54 53 136 121 109
54 123 51 106 101 99
111 127 1 94 100 101
185 103 48 69 68 59
215 47 53 88 82 80
142 55 53 115 102 94
183 27 48 20 20 17
93 69 33 186 192 184
142 56 52 14 14 12
143 56 53 86 86 85
144 56 53 130 118 108
236 38 1 236 236 224
110 176 53 53 52 52
147 77 48 64 65 61
91 77 44 28 24 21
191 102 48 53 53 48
146 52 53 132 116 105
145 53 52 14 14 15
89 71 45 41 47 47
145 53 53 127 114 105
139 96 47 83 81 75
145 54 53 125 115 104
146 53 52 14 14 15
146 54 53 114 105 100
235 42 47 66 67 57
147 53 53 114 105 99
140 177 53 65 62 61
148 53 52 11 8 6
58 72 40 199 216 208
122 88 48 75 75 67
182 78 48 33 34 30
218 6 5 30 25 16
165 98 2 66 70 72
149 53 52 20 19 17
182 82 1 68 78 81
149 54 52 117 108 100
252 91 46 27 31 30
86 96 53 78 74 70
9 87 48 192 228 244
146 54 52 12 10 9
177 156 2 115 117 115
146 55 53 145 128 117
146 55 52 24 22 18
61 131 47 101 98 86
110 102 53 94 86 80
145 56 52 11 10 7
242 58 44 47 45 39
54 121 52 62 62 62
135 119 52 61 62 66
145 56 53 135 122 110
203 117 48 53 48 39
45 111 52 68 64 60
147 54 52 16 15 12
201 99 53 72 70 68
148 55 52 53 49 43
148 55 53 110 101 95
150 48 48 41 42 36
117 164 53 56 54 53
151 47 48 57 57 47
128 92 46 32 30 26
92 123 53 91 82 76
151 48 48 47 48 40
101 66 51 113 100 91
150 49 48 42 44 37
230 109 2 101 95 100
153 48 48 59 60 49
141 96 52 93 90 88
152 49 48 62 61 50
53 140 48 65 64 55
69 161 52 75 73 73
154 48 48 71 71 68
153 49 48 89 80 50
150 50 48 71 70 57
96 91 52 106 101 98
122 177 49 24 26 16
245 107 45 21 24 24
151 50 48 77 74 51
150 51 49 107 114 93
56 83 7 127 132 121
153 50 48 74 74 61
82 144 48 77 77 68
173 80 47 61 60 53
219 7 53 44 44 43
205 84 4 117 116 98
152 51 48 50 52 45
229 45 48 101 106 88
150 47 52 60 62 61
151 48 52 27 29 31
154 47 52 18 18 18
153 48 52 16 17 16
66 163 52 74 73 72
257 107 2 153 149 141
149 50 52 24 24 24
193 118 52 93 88 86
150 50 52 99 92 85
167 53 48 48 47 40
170 47 53 129 117 105
151 51 52 26 25 22
106 118 53 81 75 70
